ply
format ascii 1.0
element vertex 1227
property float x
property float y
property float z
property uint8 red
property uint8 green
property uint8 blue
end_header
0.711399 0.824181 -1.809469 108 107 105
0.681668 0.827501 -1.818209 129 130 135
-0.676961 1.039668 -1.161921 109 117 130
-0.293208 0.807984 -1.373413 83 87 99
0.535841 0.830627 -1.828295 87 88 93
0.378340 0.859542 -1.851105 99 100 104
0.084280 0.672381 -1.370098 105 109 121
0.382726 0.860463 -1.852265 53 54 59
0.376401 0.862202 -1.855610 58 61 66
-0.092913 1.697879 -0.771989 88 89 93
-0.412647 0.911095 -1.161066 89 97 108
-0.914553 1.951166 -1.124188 130 137 153
0.107120 0.656515 -1.375946 94 102 115
0.367541 0.865707 -1.858442 53 56 63
-0.282324 0.800913 -1.388603 97 106 121
0.615786 0.833559 -1.855514 84 85 90
0.687007 0.832661 -1.858609 84 85 90
-0.691588 0.999736 -1.261825 104 110 120
0.211877 0.955657 -1.894746 98 98 98
-0.668395 2.222577 -1.217606 81 82 86
0.406446 0.872268 -1.537533 64 68 79
0.321938 0.896317 -1.891056 65 66 70
-0.067890 0.761340 -1.148090 56 57 61
0.561048 0.864882 -1.923948 62 61 66
0.511273 0.833374 -1.666154 58 66 79
0.641814 0.852797 -1.929471 80 79 84
0.123625 0.844718 -1.149090 131 135 147
0.466045 0.894582 -1.952724 80 80 80
0.432585 0.908237 -1.956312 66 66 68
0.105080 0.700156 -1.266817 113 120 130
-0.426449 0.911060 -1.167609 114 122 133
0.477733 0.897880 -1.964598 60 60 60
-0.489871 0.924173 -1.172341 130 126 125
-0.643382 1.445682 -0.681914 120 128 141
0.569597 0.878757 -1.970031 53 54 58
0.550091 1.018814 -1.420940 110 113 120
0.622804 0.872968 -1.986667 58 59 64
0.582505 0.895316 -2.015561 38 42 43
-0.522156 0.990780 -1.543067 66 74 85
0.237409 0.643700 -1.330238 53 53 55
-0.491693 0.940096 -1.347978 95 98 105
-0.828927 2.075370 -1.091896 92 96 107
0.603746 0.891406 -2.019729 52 52 45
-0.309215 1.068412 -0.888474 134 144 156
0.609413 0.897515 -2.032672 86 86 77
-0.148439 0.845917 -1.624056 59 61 58
-0.234835 0.876462 -1.659147 55 56 59
-0.062045 2.277382 -1.290043 80 83 90
-0.095084 1.013085 -0.978580 75 77 82
-0.341505 0.869126 -1.499524 57 60 67
-0.753418 1.101486 -0.981234 100 109 124
-0.082079 1.006685 -0.990879 151 158 168
-0.585851 0.961343 -1.646945 97 101 112
-0.436706 0.914697 -1.370561 68 76 87
0.046895 0.981068 -1.014782 162 171 186
0.106418 0.652574 -1.389115 106 114 125
-0.880222 1.518846 -0.842111 104 113 130
0.123103 1.038382 -1.009904 127 136 151
-0.159321 0.749566 -1.061232 123 130 140
-0.055829 0.717688 -1.440228 97 98 105
-0.690364 0.987880 -1.411402 80 83 90
-0.179441 0.749536 -1.062961 129 137 150
-0.742065 1.101806 -1.042429 65 75 87
0.075091 1.718770 -0.834047 47 51 63
-0.691128 0.989263 -1.420851 87 91 90
-0.203207 0.766505 -1.070551 115 123 136
-0.718299 1.002997 -1.428162 61 63 70
-0.147700 0.736885 -1.073229 136 148 160
-0.060281 0.814032 -1.065938 70 69 74
0.329934 1.286374 -2.143819 27 27 29
-0.527846 0.941369 -1.292943 100 109 124
0.052178 0.935628 -1.054589 142 150 162
-0.138926 1.119409 -0.880179 85 89 100
-0.075138 0.779861 -1.078198 95 94 99
-0.431188 0.884894 -1.309517 100 105 111
-0.473436 1.866643 -0.842853 111 118 130
-0.052626 0.819926 -1.088052 29 30 33
-0.313427 0.900449 -1.090647 66 75 84
-0.751527 1.847926 -0.977115 32 33 37
0.093090 0.672115 -1.481736 111 116 122
-0.299883 1.871703 -0.856761 105 107 120
0.232403 0.644449 -1.311915 101 104 109
-0.154697 0.728547 -1.108311 28 33 37
0.214588 0.639102 -1.321300 129 137 148
-0.356691 0.918916 -1.108622 78 86 97
-0.131497 1.355518 -0.802010 71 79 90
-0.697431 1.913962 -0.984480 79 83 95
-0.562577 0.996168 -1.132456 121 130 145
-0.203076 1.093108 -0.873549 126 134 147
-0.553071 2.072579 -0.969246 99 105 117
-0.213767 0.820212 -1.250628 141 149 168
0.159403 0.897585 -1.096360 109 117 128
-0.189067 2.098910 -1.056215 92 93 97
-0.242721 0.842480 -1.168613 111 118 134
-0.350880 0.898758 -1.177417 82 87 93
-0.692397 1.011257 -1.212915 110 118 129
-0.667775 1.027520 -1.537045 41 45 56
-0.317433 0.885682 -1.223547 125 129 141
0.713483 0.981987 -1.481840 138 142 153
-0.672203 2.095862 -1.010143 7 9 19
-0.690325 1.007728 -1.229184 78 82 93
-0.004892 0.716295 -1.244826 57 58 63
-0.183999 0.806830 -1.255011 120 129 144
0.245450 0.693729 -1.250805 118 125 133
0.029409 0.690185 -1.399575 105 109 121
-0.588178 2.105314 -0.987118 67 71 83
0.113957 1.168440 -2.029599 39 39 41
-0.508166 2.249708 -1.177053 45 46 51
0.248800 0.672445 -1.271799 106 109 124
-0.160753 1.121260 -1.891993 38 38 38
-0.743273 2.268303 -1.283695 86 86 94
-0.356250 0.854376 -1.288531 124 126 138
0.065363 0.674170 -1.410600 70 74 85
0.739150 0.874856 -1.597189 114 115 120
0.575734 1.163005 -1.332200 71 79 92
-0.971766 1.504922 -1.189686 69 70 74
-0.025375 1.085828 -0.954494 96 100 111
-0.103127 0.742958 -1.318545 103 111 124
-0.817721 1.129777 -1.289342 62 70 83
0.249762 0.651776 -1.323430 40 41 45
0.224946 0.643409 -1.360703 138 151 170
-0.224075 0.779350 -1.383722 88 94 94
0.431163 1.000798 -1.376602 107 108 112
0.106396 0.652471 -1.389218 106 114 125
0.434350 0.987613 -1.392276 82 87 91
-0.153236 0.743263 -1.066356 151 161 173
0.035290 0.686650 -1.412696 62 64 69
-0.582495 1.045991 -1.946102 86 87 92
0.360505 0.807069 -1.412482 119 121 134
-0.007008 0.716498 -1.272994 114 126 140
-0.116428 1.122091 -0.897259 99 103 114
0.160368 0.636716 -1.421847 86 86 86
-0.571222 1.009232 -1.455234 81 90 105
0.077980 1.169640 -1.935773 52 52 52
0.428849 0.931912 -1.445628 115 116 120
0.435219 0.933174 -1.448337 60 61 66
-0.706424 2.041532 -1.002578 61 65 77
0.075352 0.675688 -1.369936 100 104 115
0.558952 0.950301 -1.464020 153 155 167
0.200944 1.576384 -0.855457 94 106 118
-0.584827 0.977698 -1.529972 102 110 121
-0.040434 0.725624 -1.508748 74 75 79
-0.090790 1.238652 -2.139177 62 62 54
0.015634 0.696203 -1.256439 66 69 74
-0.028316 0.723053 -1.523673 65 65 67
0.663513 0.926702 -1.515175 155 160 166
-0.778505 1.086958 -1.550007 129 139 151
-0.682174 1.155907 -0.893141 84 93 108
0.750078 0.948693 -1.513318 139 147 160
-0.609356 0.970091 -1.564956 70 79 94
-0.356429 0.918194 -1.141166 72 80 91
0.056732 0.685010 -1.258551 86 89 94
-0.567482 1.498207 -0.693782 95 95 103
-0.507969 0.984216 -1.566772 112 116 127
-0.133792 0.864482 -1.651303 77 84 94
-0.371499 0.916301 -1.140843 77 81 93
0.738934 0.917620 -1.541172 101 103 115
-0.632432 0.976985 -1.589452 76 84 95
-0.229613 0.778577 -1.063591 75 83 96
-0.404000 1.688977 -0.702770 108 115 126
0.346257 0.846838 -1.557813 99 103 114
-0.002836 2.113734 -1.198882 76 87 105
-0.618154 0.969465 -1.601895 60 68 81
-0.749769 1.040756 -1.413850 43 51 62
-0.462876 1.242314 -0.782577 90 102 118
-0.574243 0.962441 -1.605482 57 64 72
-0.583366 0.962873 -1.609168 57 65 76
-0.349143 1.843257 -0.841580 109 113 124
0.771297 0.908402 -1.564556 101 104 112
-0.785982 1.617063 -0.817270 103 107 115
0.598483 0.872170 -1.575666 116 125 132
0.084839 1.440768 -0.813428 88 92 103
-0.827427 2.055351 -1.083711 103 104 109
0.669158 0.881167 -1.574608 113 119 128
-0.688037 2.077207 -1.004477 61 70 87
-0.520545 1.089729 -0.912450 230 238 248
-0.538023 0.944402 -1.231880 199 211 232
-0.879222 2.068902 -1.133038 40 41 46
0.414176 0.854172 -1.588541 105 109 121
-0.338628 0.906566 -1.613551 101 105 117
-0.338472 0.905510 -1.613556 101 105 117
0.743713 1.232985 -2.248092 169 161 153
0.507363 0.858836 -1.594979 93 97 109
-0.730826 1.148232 -0.882936 132 143 161
-0.631134 0.973945 -1.639340 71 83 95
0.705664 0.938022 -1.514940 147 151 163
-0.943293 2.078672 -1.281323 36 36 38
0.506326 0.856519 -1.601138 110 110 118
-0.289105 0.890755 -1.633911 108 112 120
-0.051716 0.806363 -1.628137 97 97 97
-0.051731 0.806009 -1.628132 97 97 97
-0.512862 0.959777 -1.681190 98 101 106
-0.624113 2.031376 -0.967423 71 78 94
-0.696404 1.070508 -1.081732 112 117 127
-0.535523 1.450582 -0.659076 83 87 88
-0.492247 0.972201 -1.665415 85 86 90
0.446097 1.412466 -1.204154 126 130 139
-0.292750 1.514217 -0.674052 51 54 59
-0.604598 0.967190 -1.674157 108 116 129
-0.508498 0.959501 -1.693665 54 58 59
-0.544132 0.965697 -1.624547 97 106 121
-0.269598 1.314478 -0.681153 151 163 179
0.593435 0.846957 -1.631951 125 129 140
-0.691506 2.340856 -1.295166 31 32 37
0.269443 1.458535 -0.955403 114 119 115
-0.592875 0.966584 -1.688542 105 112 122
-0.520379 0.930924 -1.254077 103 111 122
-0.536151 0.963597 -1.693231 100 101 103
0.450879 0.830271 -1.673203 84 88 100
0.557522 0.831367 -1.684661 71 75 87
0.540812 0.831444 -1.687640 86 94 107
-0.603667 0.976737 -1.735659 40 44 45
0.722967 0.843080 -1.719748 64 71 77
-0.624866 0.979374 -1.748642 104 112 125
0.736039 1.261781 -2.236771 165 159 148
-0.165128 0.928990 -1.735849 83 87 99
-0.654253 0.993192 -1.742272 106 108 119
-0.507518 0.984932 -1.753703 49 50 54
-0.711309 1.060315 -1.096622 116 124 137
0.423953 0.979595 -1.382893 101 104 111
-0.622636 0.979978 -1.757804 109 116 127
-0.472762 0.916435 -1.179608 81 89 100
0.568409 0.826716 -1.720890 75 78 85
0.707859 0.835729 -1.721684 42 47 61
-0.602651 1.992174 -0.959689 54 61 77
-0.615666 0.982061 -1.786192 67 71 83
0.334097 0.822266 -1.254444 104 107 114
0.608103 0.823097 -1.766460 84 84 92
0.609223 0.823807 -1.771917 103 106 113
0.328336 0.773185 -1.402961 67 68 73
0.735375 0.837299 -1.750953 94 105 123
0.376540 0.844239 -1.803939 65 66 71
0.688025 0.824702 -1.794431 67 67 69
0.228102 0.954164 -1.902552 102 102 102
-0.432618 0.937707 -1.618237 91 99 111
-0.081639 1.386397 -0.746449 80 84 95
0.514021 0.824811 -1.802922 89 92 97
-0.439216 1.022603 -1.871627 55 56 58
0.455766 0.924874 -1.470210 143 147 158
-0.186823 0.766991 -1.388555 81 89 102
-0.377467 1.344333 -0.664724 87 91 103
0.367200 0.857149 -1.838258 87 92 98
0.351744 0.869340 -1.857683 61 64 69
-0.524658 0.992186 -1.532955 65 73 84
-0.304284 0.892937 -1.630206 107 111 119
0.449785 0.900799 -1.954330 93 93 94
0.610324 0.878798 -1.995950 63 65 64
0.750679 0.852365 -1.739749 106 111 123
-0.682190 1.517158 -0.797714 46 50 56
0.612947 0.884712 -2.018755 83 84 79
-0.725178 2.048237 -1.011672 52 60 73
-0.542312 1.063194 -0.957913 107 119 135
-0.583378 1.315893 -0.660694 105 117 129
-0.061897 1.041022 -0.963897 153 163 172
-0.534127 1.037038 -0.984998 117 126 141
-0.541211 1.428124 -0.658997 64 71 81
0.673331 0.832935 -1.858935 105 105 113
0.130443 1.587516 -0.785496 106 115 130
-0.201050 1.069972 -0.891396 97 99 99
-0.113379 1.657492 -0.767421 73 72 78
-0.066297 0.796854 -1.076457 100 101 105
-0.398449 0.883635 -1.374681 71 72 76
-0.146643 0.728381 -1.104892 54 57 62
-0.700250 1.062192 -1.094360 56 68 80
0.622547 0.901933 -1.525123 186 209 250
-0.626795 1.763872 -0.835956 54 54 62
-0.755815 1.769177 -0.896480 86 90 101
-0.700156 1.061154 -1.094449 56 68 80
-0.329564 0.909411 -1.101277 108 116 129
-0.073008 2.147005 -1.204119 89 103 118
0.526944 0.824153 -1.781068 115 119 131
-0.530248 1.629725 -0.718801 57 61 72
0.234662 1.936620 -1.163833 69 79 91
-0.099646 0.726829 -1.120556 28 28 26
0.411997 0.852981 -1.592333 57 65 76
-0.097379 0.734363 -1.130633 40 40 40
-0.667248 1.451015 -0.697703 34 35 39
-0.370171 1.018211 -1.773885 76 78 90
-0.639010 1.733718 -0.828275 110 110 117
-0.805801 1.104564 -1.115009 65 74 89
-0.576241 0.961902 -1.654546 47 51 62
-0.782549 1.101846 -1.119030 91 100 115
0.035563 0.688084 -1.240778 125 128 140
-0.567196 1.003112 -1.123176 94 106 118
-0.824436 1.130408 -1.304963 64 72 84
0.155953 0.878034 -1.118009 144 152 163
0.186168 1.168995 -2.043000 56 58 57
-0.587008 1.082447 -1.974897 75 75 75
0.206831 1.660556 -0.857134 110 117 133
-0.387955 0.916072 -1.135538 119 123 135
-0.553900 1.748639 -0.810525 57 58 63
-0.163383 0.727209 -1.151445 175 179 190
-0.100094 2.032148 -1.005791 55 55 63
0.440908 0.834638 -1.816866 48 51 56
-0.865607 1.767238 -1.074809 52 56 68
-0.163585 0.727314 -1.151336 175 179 190
-0.160751 0.858030 -1.644697 94 94 99
-0.453317 0.916071 -1.145083 109 117 130
-0.360411 2.284316 -1.188269 87 91 102
0.397635 0.850519 -1.594777 111 115 127
0.553523 0.888309 -1.543297 115 124 139
-0.692939 1.037939 -1.143673 127 131 143
0.351908 0.840611 -1.657534 98 105 121
0.160975 0.858292 -1.139217 156 164 185
0.206090 0.641700 -1.303363 135 144 159
0.680586 0.842504 -1.667495 66 70 82
-0.910554 1.623689 -0.894578 46 47 52
0.020887 0.748666 -1.154798 116 116 118
0.514502 0.881827 -1.548150 53 57 68
-0.931585 1.732950 -1.140206 59 59 67
-0.656719 1.061435 -1.145787 90 99 108
-0.578277 2.352076 -1.248404 41 42 47
-0.605951 1.186821 -2.051985 198 199 198
-0.694141 1.965633 -0.989335 85 89 101
-0.656628 1.061332 -1.145898 90 99 108
0.613376 0.895966 -1.534066 162 175 201
-0.828829 1.109734 -1.150716 84 94 106
-0.445323 2.326800 -1.210008 56 57 65
-0.536709 0.985878 -1.105705 94 103 118
-0.605217 1.608509 -0.760864 112 115 122
-0.650685 1.059881 -1.151158 50 58 71
0.184901 0.640945 -1.302377 89 95 109
-0.614618 1.204604 -0.817820 130 142 158
-0.372369 1.784985 -0.783378 30 34 46
0.211675 0.860423 -1.151861 161 161 164
-0.442931 0.980305 -1.762144 41 42 44
-0.098238 0.761383 -1.170029 68 71 76
-0.932167 1.467126 -1.084949 36 39 46
-0.648567 1.056193 -1.162276 68 72 84
0.087426 1.689947 -0.815504 108 115 131
-0.591527 1.078807 -0.955079 133 144 162
-0.763238 1.759690 -0.894974 38 39 41
-0.694081 1.027842 -1.167261 87 95 106
-0.769372 1.234996 -0.840013 121 130 145
0.631420 0.894737 -1.540055 155 166 187
-0.365447 1.726577 -0.729291 31 31 33
-0.685781 1.019873 -1.189718 106 114 125
-0.819522 1.117087 -1.203721 88 96 109
-0.361020 0.897621 -1.184825 56 57 59
-0.321348 0.895661 -1.206224 86 90 94
-0.090418 0.729642 -1.407996 116 124 137
0.474636 0.842312 -1.630935 118 126 139
-0.124807 0.744370 -1.400207 124 131 147
-0.582133 1.700895 -0.799077 100 104 115
-0.548138 0.965797 -1.582645 44 48 59
-0.349362 1.661341 -0.690520 92 94 105
-0.031854 0.712546 -1.216719 120 121 123
-0.557842 1.008441 -1.466231 95 103 114
0.634422 0.911929 -1.514132 213 227 238
-0.688299 1.441635 -0.707581 15 16 20
-0.606883 0.968931 -1.578564 105 113 126
-0.559003 1.016386 -1.454383 106 115 132
-0.758444 1.281460 -0.838821 107 115 131
-0.872068 1.137275 -1.226046 101 110 127
-0.408379 0.885198 -1.366568 109 113 116
-0.240415 0.834301 -1.233506 118 127 142
-0.209424 0.774451 -1.399633 137 145 156
-0.821994 1.113298 -0.993378 88 98 110
-0.750846 1.808885 -0.941035 40 44 55
0.008425 0.717772 -1.234000 70 71 76
-0.357770 0.906498 -1.169498 128 131 146
0.632733 0.896146 -1.539622 201 221 246
-0.604690 1.523011 -0.733086 24 24 22
-0.772783 1.037883 -1.236617 123 131 142
-0.862382 1.136398 -1.240906 92 104 117
-0.017189 0.706566 -1.479030 128 129 134
-0.729528 1.759965 -0.871260 96 99 105
0.754879 0.873913 -1.653123 68 71 76
-0.608046 1.522361 -0.737913 32 32 30
-0.737485 1.008069 -1.244760 81 89 102
0.312543 0.754537 -1.442187 71 80 95
0.122393 1.833601 -0.883591 105 108 123
-0.522067 0.974403 -1.584962 82 87 96
-0.131301 1.583749 -0.704802 92 94 107
-0.739006 1.014125 -1.244541 81 89 102
-0.713117 1.548681 -0.805323 100 108 121
-0.731926 1.004562 -1.251100 107 115 128
-0.221433 1.895038 -0.872300 108 110 123
0.686596 0.828314 -1.803871 78 77 82
-0.504087 0.924568 -1.251608 80 88 99
-0.776011 1.092119 -1.002632 120 129 146
-0.190596 0.778277 -1.333942 127 134 150
-0.205654 0.773010 -1.418912 58 62 71
-0.320767 0.864606 -1.249877 102 106 118
-0.536407 1.622844 -0.720484 59 66 76
-0.320641 0.864624 -1.249886 102 106 118
-0.001542 0.696637 -1.422232 98 105 115
0.549766 0.876072 -1.567734 78 86 99
0.073013 1.193408 -2.041203 70 64 50
0.312630 0.757717 -1.460208 88 91 100
0.484564 0.868462 -1.569019 131 135 147
0.028210 1.576996 -0.751054 76 79 90
0.349751 0.792371 -1.440644 122 126 137
-0.864909 1.649727 -0.870605 80 86 98
-0.239681 0.784174 -1.405295 115 123 134
0.089689 1.827453 -0.862910 106 114 127
-0.792447 1.103345 -1.126685 106 114 127
-0.467175 1.693370 -0.730627 92 100 113
-0.038267 0.713960 -1.258397 107 111 114
0.090598 0.664644 -1.429648 102 106 117
0.238762 0.647503 -1.354162 89 96 102
-0.462709 0.900015 -1.267619 106 116 128
-0.324146 1.250288 -0.751621 108 117 126
-0.319970 2.093926 -0.991976 113 116 123
-0.803909 1.115545 -0.984507 96 106 118
0.222915 0.662102 -1.270964 140 144 156
-0.746512 2.110480 -1.050011 65 67 80
-0.609813 1.006855 -1.863889 89 93 104
0.030012 1.976540 -0.944757 59 61 60
-0.818055 1.123621 -1.278176 66 75 90
-0.582197 0.961787 -1.655128 101 105 116
-0.674637 1.003873 -1.283078 69 73 82
0.331122 0.778050 -1.465090 91 91 99
-0.189441 0.826280 -1.258335 111 120 137
0.176255 0.653721 -1.278370 108 109 112
0.306745 0.753993 -1.464383 110 117 130
-0.613702 0.968932 -1.652095 106 110 122
-0.820977 1.103478 -1.034741 107 110 117
-0.610124 1.529091 -0.748505 45 46 48
-0.016387 0.722036 -1.281163 34 34 36
0.135519 0.674861 -1.279619 133 141 154
-0.240044 1.003972 -0.981802 89 98 113
-0.925267 1.751512 -1.143472 46 45 53
0.303982 0.735580 -1.277364 76 79 84
-0.790765 1.824820 -1.004412 46 47 52
-0.649597 0.990949 -1.740014 127 130 137
0.023824 0.679356 -1.286867 58 61 68
-0.055536 0.718217 -1.272056 60 63 68
0.254840 0.668805 -1.281989 133 137 145
-0.927557 1.586101 -0.894958 101 105 116
-0.304234 0.968780 -1.723646 63 66 68
-0.512442 1.591895 -0.699273 107 110 117
0.339385 0.808434 -1.275340 84 86 98
-0.287927 0.874670 -1.037733 81 88 104
-0.634550 1.901466 -0.926911 30 31 35
-0.754374 1.008445 -1.294055 116 124 137
0.406408 0.833453 -1.655137 117 127 139
0.041878 0.679066 -1.292662 78 79 85
-0.597964 1.016593 -1.245065 116 124 137
-0.830480 1.129967 -1.308102 89 97 110
-0.574646 0.968988 -1.725785 75 74 78
0.262465 0.663621 -1.305650 60 61 66
-0.116248 0.744087 -1.069610 58 58 65
-0.411133 0.932845 -1.600988 114 118 129
-0.659638 1.752853 -0.842441 84 86 100
-0.742542 1.000504 -1.318773 79 91 105
0.225279 1.921592 -1.054712 108 112 124
0.233712 0.642501 -1.318430 74 75 79
-0.733040 0.998798 -1.336652 102 111 126
-0.595101 1.962783 -0.950457 65 71 85
0.705560 0.855406 -1.658544 57 65 76
-0.203422 1.600509 -0.737877 98 105 118
-0.595634 1.036112 -1.333511 101 111 123
-0.152946 1.622247 -0.749525 44 44 52
-0.872298 1.814949 -1.094194 92 100 113
-0.135543 0.733910 -1.079585 52 54 66
-0.142791 0.759526 -1.331169 90 94 103
0.086830 1.939152 -0.909049 133 136 155
-0.606920 0.979492 -1.749086 80 83 88
-0.273593 0.891585 -1.664668 71 72 74
-0.495833 0.938986 -1.343275 68 71 78
0.698508 0.875744 -1.599642 123 127 139
-0.217664 0.814469 -1.529510 88 89 93
0.213848 0.634770 -1.337149 65 70 76
-0.067627 0.799677 -1.613088 78 78 78
-0.207656 0.780857 -1.346683 83 92 104
0.340472 0.868227 -1.846704 88 92 95
-0.732814 1.000395 -1.357439 124 130 144
-0.878869 2.068619 -1.133176 56 60 71
-0.500160 0.965020 -1.672956 82 85 90
-0.645935 0.988451 -1.588494 109 119 131
-0.780684 1.726763 -0.883968 53 57 69
-0.760745 1.018168 -1.358589 111 114 119
0.154654 0.654091 -1.330062 67 69 82
-0.358052 0.855734 -1.361235 98 106 119
-0.407359 2.323671 -1.213430 126 130 145
-0.588178 0.963057 -1.670924 119 118 126
-0.603747 1.061031 -0.976012 107 115 128
-0.604035 2.030224 -0.962300 107 110 125
-0.736840 1.010612 -1.371865 109 115 129
-0.631044 1.632984 -0.792047 72 73 78
-0.129437 0.770727 -1.527120 55 58 65
-0.711074 1.020918 -1.175234 150 154 163
-0.130468 1.778341 -0.840916 43 44 48
-0.724907 0.994653 -1.373479 75 81 97
-0.408837 1.381387 -0.677143 95 104 119
-0.694480 2.284462 -1.253055 59 63 74
0.720526 0.871485 -1.599557 130 132 144
-0.253100 0.792589 -1.426067 64 72 85
0.427948 0.910765 -1.475112 138 137 143
-0.252677 0.891021 -1.627904 110 118 131
-0.912674 1.768926 -1.131719 72 79 95
-0.881823 1.132333 -1.381731 108 106 111
0.578321 0.878177 -1.971510 74 74 82
0.509262 0.824968 -1.763580 56 60 71
-0.244556 0.787443 -1.374647 84 92 105
-0.347758 2.262462 -1.181018 65 69 81
-0.626765 0.977356 -1.730537 108 115 131
0.561288 0.859530 -1.600013 131 139 150
-0.680363 1.769854 -0.852803 55 54 60
-0.876366 1.131863 -1.386550 67 71 82
0.078466 0.683602 -1.472408 82 83 91
0.541670 0.824811 -1.736110 115 117 126
-0.128933 0.746540 -1.381578 119 128 135
-0.563836 1.367452 -0.658005 57 65 78
-0.641885 0.980731 -1.683631 118 126 139
-0.420591 1.842106 -0.841268 113 116 125
0.703033 1.218565 -1.362292 89 95 105
0.124591 0.642096 -1.394060 78 79 84
-0.894126 1.147492 -1.199410 70 80 92
0.430931 0.993154 -1.383484 74 79 83
0.233699 0.642429 -1.334915 116 122 125
0.564430 0.830518 -1.703574 114 118 129
-0.654834 1.462898 -0.700918 17 19 18
-0.365940 0.855090 -1.413272 85 92 108
0.615376 0.887632 -1.551035 133 143 152
-0.103436 0.734909 -1.408489 79 83 91
-0.619657 0.997914 -1.500799 112 121 136
0.189322 0.633696 -1.405612 93 93 95
-0.678669 1.978718 -0.984496 114 118 130
-0.724843 1.371662 -0.735105 79 87 104
-0.597736 0.962544 -1.635291 100 104 116
-0.625972 1.930942 -0.947655 114 123 138
-0.781215 1.104503 -1.434327 70 82 98
-0.002130 0.721540 -1.191644 123 125 126
-0.454177 0.952740 -1.428850 74 84 96
-0.850810 1.126919 -1.246067 59 68 77
-0.668061 1.450157 -0.698337 36 37 41
-0.708653 1.466002 -0.771036 68 76 87
-0.741553 1.076782 -1.444748 49 57 68
-0.634480 1.464306 -0.688941 73 82 91
0.376575 0.846850 -1.597483 88 96 109
0.089630 1.741153 -0.833070 59 62 77
-0.539645 1.028411 -1.438236 76 85 100
-0.371184 0.862165 -1.433343 132 141 156
-0.621966 0.990905 -1.817047 62 70 83
-0.690872 0.996753 -1.453206 59 63 74
-0.554449 0.959252 -1.641368 99 106 122
-0.300457 2.261750 -1.183342 64 72 83
-0.375794 0.867224 -1.445325 78 87 96
0.398673 0.836325 -1.650458 84 93 108
0.060502 0.676869 -1.435361 111 114 125
-0.570005 0.959619 -1.639495 56 60 69
0.442076 0.953683 -1.427572 65 70 76
0.031594 2.103411 -1.197416 70 81 99
0.402362 0.894514 -1.432183 74 77 84
-0.554893 1.292741 -0.739534 98 111 120
-0.668544 1.499896 -0.762698 21 24 29
-0.268803 0.811391 -1.464986 69 72 80
-0.661512 1.858761 -0.886558 17 16 21
0.346022 0.843801 -1.636065 105 105 113
-0.115622 1.623831 -0.733938 26 26 34
0.289034 0.739157 -1.449849 37 37 38
0.004245 1.575339 -0.757768 50 53 60
-0.056258 0.742305 -1.195775 128 136 149
-0.611664 1.628328 -0.772495 55 59 71
0.537591 0.964756 -1.450640 144 148 159
-0.554711 0.967675 -1.710535 89 92 99
-0.490821 1.011910 -1.481467 89 96 114
-0.429265 1.743307 -0.746958 89 92 97
0.395739 0.839541 -1.634986 122 126 138
-0.316712 1.779248 -0.768252 111 111 123
-0.842378 1.123574 -1.502374 100 108 121
-0.529814 0.941603 -1.232428 112 117 124
0.429447 0.910286 -1.474237 118 119 124
0.092328 1.943410 -0.911598 89 96 110
-0.776335 1.086902 -1.589720 124 128 140
-0.514876 1.012080 -1.502198 74 81 97
0.093161 0.672904 -1.482241 111 116 122
-0.510387 2.334490 -1.214763 84 92 103
-0.351278 0.877561 -1.215543 75 79 90
-0.195576 1.590762 -0.716649 27 27 29
-0.047853 0.722743 -1.486416 111 110 116
-0.621495 0.976348 -1.728490 76 84 95
-0.743821 1.081960 -1.514527 105 114 129
-0.120733 1.026357 -0.951272 103 110 126
-0.621593 0.993071 -1.515234 93 102 117
0.441325 0.837060 -1.642105 106 114 125
-0.768507 1.080252 -1.524470 59 68 83
0.211665 0.660546 -1.274890 91 95 107
-0.464805 0.999097 -1.519634 116 125 140
-0.400493 0.919687 -1.510617 54 59 65
-0.686310 1.022559 -1.526200 71 81 91
0.549689 0.895372 -1.528674 125 135 147
0.768650 0.980668 -1.493223 63 72 77
-0.778129 1.893167 -1.029008 63 70 86
-0.747857 1.011269 -1.335498 72 81 90
-0.549689 1.745130 -0.806279 48 49 54
-0.638518 0.980303 -1.592661 49 50 54
-0.770186 1.080814 -1.539068 82 91 106
-0.676433 2.137325 -1.037553 45 48 55
-0.160797 0.780319 -1.515367 82 85 94
-0.829233 2.080883 -1.093609 37 38 42
-0.466843 1.021314 -0.962478 150 160 176
0.595509 0.914396 -1.506387 134 138 150
-0.565111 1.811765 -0.834526 91 93 105
-0.725629 1.392502 -0.730751 68 72 84
-0.588986 0.980596 -1.516075 99 107 118
0.595476 0.914753 -1.506387 134 138 150
-0.812100 1.896140 -1.050578 89 93 105
-0.765888 1.018423 -1.378457 93 101 114
-0.919368 1.754338 -1.135984 39 39 47
0.754063 0.954206 -1.506023 161 169 182
-0.427714 1.691274 -0.712286 34 36 48
-0.498538 1.005832 -1.516467 120 129 144
-0.643137 2.239126 -1.212709 91 93 105
-0.677588 1.026421 -1.549131 83 91 104
-0.613314 0.966800 -1.627933 118 126 137
0.416711 0.884711 -1.514308 76 80 92
-0.235565 0.872982 -1.643649 114 117 127
0.584710 0.906637 -1.516192 145 149 158
-0.416548 1.940014 -0.875638 67 68 73
0.740904 1.181389 -1.419475 139 143 155
-0.603580 1.656620 -0.784372 50 48 61
0.541130 0.840859 -1.644664 102 110 123
-0.310062 1.697852 -0.707977 48 49 51
0.705676 0.938855 -1.515036 147 151 163
-0.464707 1.613948 -0.691498 139 143 155
-0.535557 0.993138 -1.520208 67 75 86
-0.063700 1.934323 -0.939987 53 59 71
0.565434 0.902718 -1.519752 87 95 107
0.222962 1.062185 -1.975654 72 69 60
-0.053774 0.770029 -1.580598 91 92 96
-0.514969 1.642259 -0.714425 103 110 126
0.358361 0.852836 -1.527560 94 100 114
-0.019842 2.049477 -1.062077 81 85 96
-0.641404 0.986025 -1.729708 73 81 94
-0.844841 1.723986 -0.951766 47 48 53
0.587268 0.902467 -1.523049 118 126 138
0.038211 1.702296 -0.838478 52 55 62
0.485539 0.889655 -1.527924 145 147 159
0.611224 1.244537 -2.154018 185 189 192
-0.679713 1.029273 -1.568590 91 99 110
-0.627269 2.154519 -1.036148 71 80 89
-0.269799 0.864714 -1.102382 69 73 85
-0.717944 2.273979 -1.264712 53 56 63
-0.705012 1.071958 -1.571686 73 82 100
-0.542668 0.962863 -1.593278 97 101 110
0.401706 0.874582 -1.534354 105 109 120
-0.008625 2.257114 -1.296974 167 174 190
-0.613162 1.524785 -0.745256 81 88 104
-0.488157 1.251798 -0.743875 79 88 103
0.064034 1.722093 -0.842688 89 96 108
0.519652 0.888783 -1.537673 74 78 90
0.466012 0.881483 -1.536978 67 70 77
0.519693 0.888787 -1.537694 74 78 90
-0.284346 0.963195 -1.715072 66 70 82
-0.315979 1.767565 -0.750706 35 35 40
-0.512438 0.980137 -1.575754 68 72 81
-0.412078 0.916849 -1.097062 90 91 96
-0.753614 1.990290 -1.013864 109 112 127
0.608459 0.888149 -1.547206 58 71 78
-0.685718 1.233475 -0.831976 139 152 171
-0.598033 0.965343 -1.586951 106 114 127
-0.722973 1.109224 -1.029839 53 61 71
-0.536487 0.965268 -1.592617 89 93 102
-0.402727 0.934564 -1.596231 135 143 159
-0.187721 0.936096 -1.733790 70 74 77
-0.694167 1.783490 -0.863479 142 144 144
-0.775057 1.087315 -1.611061 104 112 123
-0.624504 1.411439 -0.673295 132 140 153
0.731318 0.869838 -1.650187 107 107 115
-0.083857 0.758326 -1.540986 40 40 42
-0.121389 1.881995 -0.894197 24 29 33
-0.378065 0.919670 -1.593325 91 100 115
-0.331732 1.421780 -0.668587 133 141 154
0.039704 0.692476 -1.490680 64 65 69
-0.549412 0.959530 -1.654909 64 68 77
-0.583639 1.831656 -0.844148 66 68 81
-0.710312 1.069041 -1.618514 65 74 91
0.739104 0.822307 -1.777815 77 78 83
-0.110205 0.862292 -1.665807 110 110 110
0.583600 0.874045 -1.572627 85 93 104
-0.306934 0.901983 -1.604084 83 92 104
-0.716248 2.298680 -1.276111 44 45 49
-0.561282 1.047033 -1.000035 130 139 154
-0.201869 0.855650 -1.599889 59 60 63
-0.536057 0.982941 -1.545675 71 79 90
-0.523802 0.936675 -1.212397 79 88 95
-0.578236 0.962905 -1.617354 108 115 131
0.592623 0.888794 -2.008031 104 104 106
-0.184712 0.775965 -1.470915 61 65 77
-0.410861 1.708950 -0.728289 16 16 18
0.356635 0.850053 -1.586389 62 65 74
0.733718 1.240387 -2.259026 186 190 191
-0.489067 0.990081 -1.549944 93 102 117
0.545633 0.868461 -1.583152 106 114 125
-0.595027 1.494314 -0.698503 71 72 77
-0.535194 0.960197 -1.674136 88 92 95
-0.662618 1.471918 -0.712764 39 43 55
-0.620490 0.968925 -1.622269 74 82 95
-0.638794 1.750674 -0.834611 59 60 65
-0.422040 0.916505 -1.135027 103 111 124
-0.346879 1.017673 -1.819467 50 49 53
0.070495 1.910610 -0.898548 107 110 122
-0.278790 0.899029 -1.609733 127 135 148
0.755129 1.179178 -2.270370 171 167 158
0.476602 0.842405 -1.627843 73 81 94
0.647929 0.873963 -1.581880 124 128 139
-0.395502 1.355043 -2.196341 71 65 53
0.666046 0.826334 -1.810826 97 98 103
-0.543841 0.961448 -1.624430 97 106 121
-0.504049 0.992468 -1.546963 123 132 147
-0.375372 0.916570 -1.616839 69 71 84
-0.484050 1.626791 -0.699217 90 92 105
-0.298707 0.892238 -1.031414 124 129 126
-0.284571 0.900222 -1.612900 92 100 113
-0.336857 0.861593 -1.492105 96 99 104
-0.231691 0.877653 -1.619336 118 127 142
0.123254 1.807114 -0.868593 114 123 138
-0.429762 0.971889 -1.565914 126 135 150
-0.671546 1.504065 -0.775803 54 57 64
-0.837626 1.110993 -1.460629 43 43 51
0.753168 0.877731 -1.591764 139 141 151
-0.393984 0.925334 -1.628466 82 84 96
-0.509227 1.406660 -0.657429 145 153 164
-0.038815 0.805555 -1.135923 128 132 144
-0.254161 1.921782 -0.880356 56 62 74
0.371234 0.847628 -1.602953 97 101 110
-0.554979 1.134867 -0.875233 103 112 127
0.600428 0.861239 -1.599730 129 137 150
0.020053 0.697518 -1.487163 54 54 62
0.609667 0.862678 -1.599767 134 142 155
-0.410848 0.932487 -1.636560 45 49 50
-0.007208 0.709224 -1.501293 71 71 73
0.368598 0.845936 -1.610531 136 137 142
-0.538743 1.663854 -0.739409 30 33 40
0.056400 0.727240 -1.570683 49 50 52
-0.139790 2.114962 -1.182904 86 95 112
0.768366 0.884154 -1.601742 47 50 57
-0.201072 0.853699 -1.598827 51 52 54
-0.711081 1.841271 -0.919636 32 33 38
-0.487963 0.980837 -1.648996 87 90 97
-0.735673 1.882443 -0.999461 36 38 50
0.071531 0.699538 -1.228057 74 75 80
0.081159 1.735508 -0.836105 96 104 117
0.724082 0.869160 -1.611918 52 56 59
0.408401 0.857665 -1.578850 81 83 96
-0.713945 1.856863 -0.950283 65 64 69
-0.594850 1.024575 -1.133396 76 85 100
-0.810904 2.103376 -1.091553 38 39 43
-0.515225 0.960063 -1.656559 57 60 67
0.051781 1.713950 -0.841240 118 126 139
0.669246 0.857267 -1.617411 113 115 127
-0.560360 0.992362 -1.500953 63 71 82
-0.778653 1.087409 -1.549680 129 139 151
-0.574846 1.005326 -1.884522 53 56 61
-0.175347 0.853077 -1.642488 54 59 63
0.131779 0.727683 -1.209682 132 136 147
-0.357132 2.002846 -0.949382 117 120 137
-0.548138 0.965797 -1.582645 44 48 59
-0.653268 1.556590 -0.793146 72 74 86
-0.627953 0.975362 -1.664260 74 82 95
0.405161 0.839199 -1.636636 119 123 135
0.727976 0.867957 -1.622573 134 140 152
0.634422 0.911929 -1.514132 213 227 238
-0.804876 1.115113 -1.175275 61 62 67
-0.650898 0.986066 -1.674350 69 77 88
-0.839536 1.248879 -0.901203 92 96 108
-0.625270 0.973774 -1.676980 74 82 95
0.057042 0.697228 -1.214048 129 133 144
-0.121434 0.725017 -1.107655 34 37 44
0.728319 0.867349 -1.630431 66 69 78
0.308478 0.863566 -1.806321 85 84 89
-0.562929 2.047414 -0.957470 120 123 132
-0.568961 0.963046 -1.581521 115 119 131
-0.464740 1.604544 -0.691193 105 108 115
-0.305451 1.007045 -0.933564 145 154 169
0.585932 0.845667 -1.634667 99 103 114
0.056709 1.948870 -0.923993 147 160 176
-0.209732 0.855934 -1.645940 53 53 53
-0.771133 2.115401 -1.068115 36 37 42
-0.626432 0.972889 -1.683505 123 132 139
-0.563434 1.754315 -0.817642 82 89 105
-0.092429 0.783101 -1.574958 57 58 62
-0.642050 1.630251 -0.802566 63 64 69
-0.229011 0.937094 -1.671267 76 74 75
-0.338382 0.905555 -1.176931 130 134 144
-0.634314 0.980271 -1.718098 60 70 82
-0.414914 1.000807 -1.685402 83 87 96
-0.682655 1.010561 -1.222686 64 67 74
-0.213081 1.896977 -0.875696 51 51 59
-0.670193 1.121355 -0.981963 72 84 99
-0.439950 0.994369 -1.687345 67 70 82
-0.778828 1.105453 -1.125074 61 70 85
0.700591 0.848245 -1.688089 125 141 167
-0.656880 0.990052 -1.693967 75 82 98
-0.825357 1.105850 -1.128601 105 114 129
-0.752764 1.108215 -0.952983 123 132 147
0.429999 0.834677 -1.652675 107 111 122
-0.125691 0.736210 -1.079031 112 120 133
-0.542472 1.379392 -0.654592 66 74 87
0.150664 1.066186 -1.928733 73 69 68
-0.571791 1.693155 -0.782287 24 24 26
-0.763514 2.253867 -1.298207 69 68 73
0.430215 0.834925 -1.652569 107 111 122
-0.425491 0.909976 -1.185874 159 163 174
-0.556446 0.959728 -1.647758 99 103 115
-0.545104 1.731568 -0.794001 37 38 43
0.663282 0.845481 -1.647345 120 124 133
-0.757740 1.826592 -0.968355 28 29 33
0.180852 1.207861 -2.091415 35 35 37
-0.459711 0.984211 -1.693883 81 84 91
-0.734888 1.031026 -1.158774 125 133 146
-0.552363 0.975045 -1.156392 100 106 121
-0.420388 0.998821 -1.695477 102 106 118
-0.082785 1.001755 -0.996352 113 121 134
0.753744 0.912929 -1.544969 141 145 156
-0.452845 0.985775 -1.698440 44 47 52
-0.369582 0.917450 -1.095770 63 71 82
-0.640667 1.086052 -1.046010 113 122 137
0.750351 0.868154 -1.658013 44 48 51
-0.803989 1.105587 -1.146223 49 57 68
-0.273135 1.425021 -0.671950 128 135 143
0.690446 0.822497 -1.756285 91 92 97
-0.033539 2.071404 -1.186965 78 85 98
-0.755357 1.375037 -0.794797 61 63 75
0.740169 0.864269 -1.658533 95 97 109
-0.021020 0.716351 -1.362213 82 86 97
-0.881525 1.141214 -1.260356 59 72 81
-0.717982 2.274036 -1.264634 53 56 63
0.723180 0.861633 -1.662036 51 57 63
0.016145 0.684065 -1.306393 92 95 102
0.246529 0.664589 -1.282212 124 125 130
-0.754738 1.098878 -1.726291 91 100 107
-0.916601 1.215096 -1.134272 36 39 48
-0.825060 1.106237 -1.142613 45 54 69
0.221176 0.633275 -1.341109 59 62 70
-0.281642 0.959109 -1.703611 100 103 118
-0.621209 0.977453 -1.722396 77 85 96
-0.742229 1.101619 -1.057381 100 110 122
0.617762 0.880469 -1.563928 136 144 157
-0.512652 0.969071 -1.718377 82 85 90
-0.917217 2.005305 -1.139642 52 55 60
0.010451 0.718709 -1.216161 68 69 73
-0.786654 1.977757 -1.030133 88 90 102
-0.627595 0.977753 -1.723885 122 129 145
-0.083784 1.766152 -0.810397 65 73 86
-0.561826 0.960874 -1.610598 60 69 86
-0.610936 2.098043 -0.989952 18 21 28
-0.726803 1.727435 -0.854866 49 52 59
-0.582513 0.972757 -1.725617 83 84 87
-0.327279 2.324811 -1.237713 36 37 41
0.501485 0.830470 -1.673770 125 134 149
-0.159187 2.080341 -1.044577 42 43 45
-0.896171 1.679423 -0.916486 33 34 38
0.458477 0.827510 -1.686777 108 110 109
0.363346 0.845391 -1.299683 99 101 113
-0.647218 2.024759 -0.972279 57 59 71
0.458592 0.827587 -1.686774 108 110 109
0.376416 0.834306 -1.690673 90 91 96
-0.772990 1.098028 -1.068386 109 117 130
-0.672485 1.006519 -1.737737 130 134 138
0.504387 0.888882 -1.534722 63 71 82
-0.656394 0.994126 -1.736348 70 79 90
0.372950 0.861039 -1.503303 73 73 73
0.623662 0.831851 -1.685619 130 134 146
-0.556045 0.960627 -1.618416 97 106 122
0.659292 0.831771 -1.685077 130 133 150
-0.524044 1.668931 -0.732017 37 38 42
0.721721 0.860864 -1.657026 93 103 113
-0.474606 1.795095 -0.821896 75 84 101
0.659520 0.832724 -1.684941 130 133 150
-0.729060 1.897994 -1.003133 65 69 78
0.133909 0.724561 -1.218377 141 145 156
-0.351320 1.947475 -0.879481 82 90 103
0.672269 0.833264 -1.683982 116 118 130
0.382756 0.844114 -1.626986 94 97 106
-0.549260 1.634992 -0.731738 39 44 50
-0.298080 0.969565 -1.726828 86 87 85
-0.781629 1.102659 -1.119755 103 112 127
0.668014 0.831703 -1.688885 67 69 92
0.667767 0.831504 -1.688847 67 69 92
-0.074596 1.354255 -0.821545 103 111 122
-0.257501 0.953498 -1.728474 59 58 54
-0.592989 0.966219 -1.566127 99 108 117
-0.349816 1.008131 -1.738879 42 42 40
-0.598111 0.966384 -1.689044 65 72 83
-0.444801 0.909315 -1.203903 119 123 132
-0.601954 0.976552 -1.744458 34 37 44
0.620089 0.828888 -1.696822 112 116 127
-0.415036 1.934745 -0.867876 55 56 61
-0.198413 0.803551 -1.205696 106 114 127
-0.068683 1.925387 -0.926290 81 84 91
0.705471 0.843841 -1.697223 79 88 104
-0.555373 1.028789 -1.027285 97 106 121
0.721063 0.849070 -1.697390 94 101 113
-0.324070 1.492045 -0.672998 110 118 131
-0.134411 0.786246 -1.551881 53 54 57
-0.583639 1.831656 -0.844148 66 68 81
0.729556 0.851647 -1.702856 135 142 167
0.584625 1.338655 -1.262895 128 128 128
0.689225 0.832264 -1.703889 130 145 163
-0.526563 0.977654 -1.569623 65 70 76
-0.927455 1.657634 -1.094416 79 82 94
0.537597 0.827610 -1.709819 79 82 97
0.491073 0.843931 -1.624702 93 97 109
0.503923 0.825167 -1.719374 84 92 105
-0.678037 1.258676 -0.770793 110 123 139
0.363304 0.820542 -1.366378 81 82 87
-0.484186 1.909638 -0.856720 76 77 79
-0.427647 0.986021 -1.766397 49 50 54
0.211778 0.955782 -1.894912 106 106 106
-0.801386 2.080971 -1.075470 101 104 113
0.194784 0.752828 -1.218702 87 89 102
-0.427299 0.985177 -1.766439 49 50 54
-0.322516 2.333057 -1.252193 68 69 71
0.748362 0.852852 -1.725723 56 62 74
-0.697359 1.969845 -0.992579 125 129 141
-0.517349 0.984084 -1.564453 67 73 84
-0.746741 1.777473 -0.894530 43 44 48
-0.572299 1.286905 -0.686083 82 90 101
-0.597672 0.978339 -1.781480 48 51 56
0.709660 0.835646 -1.728026 121 130 147
0.558750 1.402425 -1.184638 91 99 110
0.024665 1.805405 -0.867862 46 48 60
-0.859565 1.570853 -0.833856 89 98 115
-0.413216 0.991279 -1.777812 39 40 45
0.034413 0.685203 -1.452061 95 99 110
0.021311 1.782775 -0.871514 85 89 100
-0.361951 1.016649 -1.779526 87 90 97
-0.264924 2.092699 -1.012922 118 119 124
-0.062749 0.721946 -1.443816 94 99 109
-0.614577 1.512998 -0.725333 21 21 23
-0.406629 0.994269 -1.781140 76 79 84
-0.089063 0.733040 -1.357118 108 116 129
0.483998 0.824164 -1.738517 96 99 117
-0.531630 1.546548 -0.725844 58 60 72
0.483852 0.824098 -1.738625 96 99 117
-0.001820 0.699250 -1.351882 69 71 84
0.721359 0.837792 -1.733264 137 149 165
0.244032 0.666151 -1.275493 170 181 199
-0.629427 0.989289 -1.792359 61 69 82
0.452194 0.983507 -1.408356 129 133 144
-0.387463 1.000750 -1.790631 55 57 64
-0.877664 1.141730 -1.284140 100 107 123
-0.556521 1.037569 -1.411881 116 124 137
-0.510571 1.519159 -0.704977 82 85 97
-0.599740 0.982324 -1.814839 92 99 109
-0.307350 1.786595 -0.775068 108 109 113
0.718281 0.822118 -1.761223 118 118 126
0.004719 1.517666 -0.731038 74 78 87
0.308877 0.752154 -1.424745 66 67 75
-0.523511 1.740494 -0.790083 29 32 39
-0.597889 0.984334 -1.822507 52 53 58
0.026147 0.690431 -1.367958 87 94 104
0.516972 0.824219 -1.770668 72 76 90
-0.705064 2.073230 -1.011053 56 64 75
-0.725133 1.367495 -0.737971 111 120 135
0.320947 0.761743 -1.308262 95 96 101
-0.293175 1.963301 -0.921570 59 60 62
-0.562218 0.990192 -1.823995 26 31 35
-0.456766 0.923236 -1.349941 59 63 75
-0.002047 0.979318 -1.018890 105 112 128
-0.562030 0.989557 -1.831488 66 71 75
-0.556607 0.991237 -1.838503 38 39 43
0.740431 0.822506 -1.784374 67 68 70
-0.120611 0.743247 -1.383891 119 128 143
-0.354651 1.011124 -1.848163 48 48 50
-0.667250 0.998912 -1.321807 90 94 105
-0.707190 2.260027 -1.252597 45 46 51
-0.354652 1.011549 -1.848296 48 48 50
0.034390 0.680168 -1.309153 54 55 60
0.061969 1.808995 -0.849705 68 75 91
-0.419104 1.013944 -1.857461 54 57 62
-0.503708 2.127222 -0.988794 84 96 113
0.743725 1.233172 -2.248141 169 161 153
-0.419258 1.014718 -1.857423 54 57 62
-0.073229 0.731979 -1.297696 55 59 71
0.400462 0.843907 -1.822216 67 70 77
-0.817502 2.021977 -1.062497 105 109 121
-0.889750 1.136377 -1.236292 71 79 92
-0.708310 1.473983 -0.779850 35 36 40
-0.543519 1.004545 -1.876793 22 22 30
-0.026641 0.713587 -1.387710 98 106 119
-0.567865 1.005751 -1.887192 49 57 60
-0.492709 1.518492 -0.702397 48 51 56
-0.271610 1.299532 -0.698637 95 103 114
-0.611356 1.512613 -0.723482 45 50 56
0.387729 0.851782 -1.837295 113 113 113
-0.680136 0.988469 -1.342095 58 66 77
-0.337797 1.024238 -1.896471 58 58 60
-0.217182 2.239387 -1.188295 74 82 97
-0.075186 0.732705 -1.311433 118 119 121
-0.091721 1.658364 -0.742467 49 50 55
0.484598 0.842707 -1.849676 88 88 90
0.096708 1.697915 -0.816166 77 86 101
-0.567410 1.029371 -1.925698 44 45 49
-0.951831 2.071173 -1.287673 135 134 132
-0.485545 0.922737 -1.297454 80 88 99
-0.917194 1.570986 -0.879837 51 54 61
0.228123 0.955398 -1.903479 102 102 102
-0.630386 1.031017 -1.270651 73 76 81
-0.588084 1.001297 -1.194000 120 128 141
-0.559023 1.076972 -1.984124 78 78 78
-0.674177 1.106710 -1.026227 44 54 66
0.195124 0.820116 -1.173781 149 153 164
0.664006 0.847406 -1.928039 90 90 92
-0.243550 0.818503 -1.085598 71 75 87
-0.553736 1.753318 -0.813824 108 115 131
-0.187154 0.803737 -1.236676 103 108 120
-0.747486 2.265489 -1.290504 82 82 90
0.332934 0.911726 -1.917917 89 89 89
0.478835 0.889225 -1.949438 73 73 75
-0.173766 1.851475 -0.851473 122 125 140
-0.633391 0.974310 -1.635478 78 86 99
-0.713737 2.319985 -1.296401 60 61 65
0.459260 0.898946 -1.955005 85 85 85
0.389652 0.851101 -1.831896 92 96 99
-0.467371 0.914666 -1.222635 110 118 133
-0.596504 1.479633 -0.682498 76 83 93
0.631971 0.861799 -1.959969 91 91 103
-0.142103 0.727000 -1.102033 105 110 119
0.409835 0.881884 -1.521072 120 122 134
0.639603 0.870157 -1.984524 35 36 40
-0.815001 1.103753 -1.021781 115 125 137
0.015942 0.685207 -1.324255 35 36 41
0.602910 0.878255 -1.991381 58 59 63
-0.281173 0.882661 -1.219911 107 111 123
0.668601 0.847918 -2.467527 136 135 141
-0.607538 1.067460 -0.989580 85 93 104
-0.844225 2.102503 -1.119596 42 47 53
-0.455319 0.993179 -1.650819 73 77 88
-0.760028 2.066569 -1.039021 61 64 70
-0.482633 0.917932 -1.231022 66 75 84
-0.378181 1.388179 -0.671043 85 95 107
0.387254 0.907221 -1.933988 54 54 54
0.171880 1.810618 -0.871014 107 110 125
-0.640477 1.266772 -0.731472 95 104 119
-0.791050 2.089851 -1.072426 49 59 72
-0.361143 1.255059 -0.731908 121 131 143
-0.298333 2.151419 -1.153320 10 13 20
-0.191917 1.003849 -1.004820 121 130 147
-0.680839 1.256574 -0.778946 156 163 181
0.215047 0.646253 -1.292706 102 106 117
0.169363 0.644892 -1.437712 32 33 37
-0.751319 1.100547 -1.053378 108 118 127
-0.526474 1.238966 -0.782342 96 109 125
-0.401354 1.347142 -0.674517 129 133 145
-0.712274 0.989963 -1.394609 97 105 118
-0.271857 1.432092 -0.670753 144 148 159
-0.526792 1.235127 -0.783192 96 109 125
-0.689029 1.091795 -1.048728 114 122 133
-0.510038 0.937645 -1.322958 87 94 97
-0.703987 1.266981 -0.793515 146 158 180
-0.249971 0.828455 -1.087379 65 73 86
0.158764 0.905067 -1.098204 138 146 160
-0.703999 1.267137 -0.793433 146 158 180
-0.686941 1.823499 -0.874540 61 59 72
-0.243735 0.798419 -1.324424 92 95 110
-0.501905 1.502864 -0.681276 20 21 25
-0.436856 1.204785 -0.806414 90 99 108
-0.769672 1.099152 -1.038055 99 113 126
-0.831257 2.116598 -1.123427 128 135 145
-0.567705 0.985065 -1.810430 44 44 46
-0.711011 1.834712 -0.910408 58 59 64
-0.436825 1.204446 -0.806472 90 99 108
-0.752607 1.100388 -1.050021 67 77 87
-0.092015 0.729683 -1.425102 116 124 135
-0.597229 1.216821 -0.816530 112 124 140
-0.814431 1.115611 -1.183603 45 50 56
0.197837 1.948947 -1.090611 101 109 122
0.462668 1.417713 -1.105401 110 114 125
-0.551631 1.132684 -0.847646 81 90 101
-0.358310 2.073176 -0.975756 122 126 137
-0.266710 0.799227 -1.430533 73 76 83
-0.415584 1.518820 -0.673829 21 22 27
-0.623123 1.167756 -0.868465 85 98 113
-0.686787 0.988225 -1.341772 58 66 77
-0.307291 1.051092 -0.897033 122 130 149
-0.663013 1.064326 -1.130610 89 97 108
-0.913810 1.182130 -1.186151 80 94 105
-0.297836 1.040909 -0.903800 175 187 203
-0.670386 0.997976 -1.326189 61 65 76
-0.716804 0.990032 -1.374423 111 112 118
-0.218350 1.512120 -0.672018 49 52 61
-0.502024 1.083965 -0.909130 221 230 244
-0.296672 1.024366 -0.916265 120 128 141
0.128937 1.172253 -2.027681 30 30 32
-0.816677 1.355570 -0.869641 117 127 139
-0.239286 1.008965 -0.970412 84 94 106
-0.233669 1.959724 -0.922273 115 116 121
-0.269903 0.858788 -1.550254 58 58 60
-0.441103 1.983942 -0.937972 62 63 69
-0.076754 1.028448 -0.966672 105 113 118
-0.535855 0.985572 -1.538956 101 109 120
-0.832751 1.111093 -1.052542 75 84 99
0.102251 1.707350 -0.818399 132 144 160
-0.794613 1.097325 -1.062683 73 83 99
0.065375 2.146772 -1.227859 101 105 117
0.736039 1.261781 -2.236771 165 159 148
-0.345852 1.967796 -0.906005 48 49 53
-0.800886 1.100512 -1.072855 75 87 101
-0.172514 0.767463 -1.460656 93 96 103
-0.629096 1.025066 -1.273110 76 79 84
-0.031833 0.838786 -1.090535 105 108 115
-0.735379 1.085380 -1.506034 75 84 101
-0.737928 1.095345 -1.091576 117 129 145
-0.572103 1.270354 -0.743127 132 141 156
-0.260255 0.844473 -1.092990 103 104 106
-0.067418 1.806993 -0.821466 62 70 81
-0.083927 0.746461 -1.136154 34 34 34
-0.701855 1.866548 -0.945830 54 53 58
-0.706038 1.042230 -1.126685 117 125 136
-0.577010 0.963930 -1.572536 70 78 91
0.011495 0.697240 -1.481557 57 59 66
-0.640740 1.838707 -0.855316 125 134 150
0.102730 0.841899 -1.132036 114 122 135
-0.658837 2.352722 -1.284027 32 37 41
-0.655218 1.539374 -0.792501 50 54 66
0.051737 1.429728 -0.802155 70 75 81
0.039820 0.779154 -1.140706 94 95 100
-0.792047 1.800294 -0.990392 68 70 69
-0.343288 0.852769 -1.472275 92 96 105
-0.369578 0.917445 -1.095695 56 59 66
-0.118337 0.749365 -1.154138 37 37 39
-0.160296 0.728713 -1.157645 42 42 42
0.205285 0.634360 -1.335345 123 138 153
-0.307043 0.916450 -1.129580 65 69 80
0.115050 0.843248 -1.143209 132 139 155
0.537508 0.823839 -1.785290 70 74 86
0.075673 0.676857 -1.479994 98 100 112
0.506752 1.424654 -1.106809 100 104 115
0.343810 0.782152 -1.425385 126 130 142
-0.888032 1.137497 -1.176125 104 114 124
-0.572225 1.743790 -0.816223 111 114 124
-0.472338 0.940074 -1.375328 51 54 59
-0.432781 0.880925 -1.252057 61 66 75
-0.381839 1.949343 -0.883682 53 55 67
-0.320534 0.906717 -1.185930 81 86 92
0.220009 0.642739 -1.371382 140 157 177
-0.074620 0.750831 -1.194281 123 124 125
0.079351 1.795676 -0.839404 123 132 149
-0.168856 0.763066 -1.372834 73 82 91
0.061042 2.048297 -1.184411 64 73 88
0.128429 0.735123 -1.198001 130 131 136
-0.672580 2.376820 -1.346807 32 33 38
-0.169195 0.736009 -1.164155 37 36 41
0.312480 0.845840 -1.645683 50 49 54
-0.122018 1.795383 -0.841418 42 45 52
-0.874205 1.136735 -1.200650 62 74 88
0.219691 1.824953 -0.877835 87 96 111
-0.672066 1.713756 -0.829959 94 98 110
-0.353347 0.859829 -1.283496 124 132 145
-0.062072 0.725112 -1.463211 98 102 113
-0.444762 0.902278 -1.212623 124 132 143
-0.606591 1.944769 -0.946329 111 115 124
-0.482706 0.923288 -1.155828 117 127 137
-0.571821 1.010150 -1.462843 81 89 100
-0.579264 1.715156 -0.803881 53 57 69
-0.816731 1.120698 -1.226424 69 78 93
-0.658160 1.005691 -1.478676 64 65 70
-0.444637 0.909716 -1.203767 136 142 154
-0.854549 1.131462 -1.236150 62 70 82
-0.452903 2.033180 -0.951409 117 124 140
0.575401 1.335378 -1.272686 119 124 127
0.034995 0.688563 -1.396231 104 108 120
-0.129298 1.850052 -0.848167 105 108 115
-0.875845 1.141246 -1.253793 95 104 119
0.572109 0.914080 -1.503129 131 135 145
0.084816 0.699257 -1.239401 128 131 138
0.056808 0.683561 -1.258691 86 89 94
-0.343129 1.832377 -0.828522 114 117 126
-0.226242 0.777876 -1.391509 70 77 87
0.091063 1.904638 -0.892586 87 91 102
-0.549676 0.956238 -1.261943 199 215 240
-0.277016 0.856644 -1.264688 134 142 155
-0.521604 1.229361 -0.772089 119 131 147
-0.277001 0.856391 -1.264744 134 142 155
0.081713 0.667030 -1.414645 108 112 124
-0.034699 0.718561 -1.281329 42 43 46
-0.359386 1.735176 -0.735413 78 79 81
-0.485049 0.935709 -1.351624 55 58 65
-0.677136 2.348189 -1.293075 79 81 91
-0.701112 0.993576 -1.287121 101 105 117
-0.083848 0.735648 -1.316906 72 73 75
0.239855 0.660216 -1.284596 80 81 86
-0.044731 1.378663 -0.818552 154 150 139
-0.689928 0.989186 -1.317635 65 74 83
-0.706479 1.907902 -0.989825 96 99 108
-0.747105 1.357874 -0.775889 83 87 99
-0.353991 0.852674 -1.308434 96 97 102
-0.711542 1.955083 -0.998825 73 80 96
0.579774 1.328777 -1.281488 75 84 93
0.588438 1.297733 -1.331062 77 85 96
-0.834182 1.128342 -1.323863 64 72 85
-0.070880 0.721630 -1.402156 111 113 125
-0.649766 2.335366 -1.258926 85 86 91
-0.675307 1.480410 -0.736866 50 53 60
-0.852221 1.128816 -1.328415 61 71 81
-0.536383 1.699240 -0.753974 65 69 71
-0.680185 1.141154 -0.919054 93 105 121
0.030489 1.729684 -0.857725 69 73 85
-0.843444 1.129946 -1.331807 91 98 114
-0.885576 1.141215 -1.337681 72 80 93
-0.456269 0.925416 -1.362548 46 50 61
0.224557 0.639331 -1.323158 102 106 109
-0.393510 0.873965 -1.319183 32 39 47
-0.824727 1.509359 -0.820239 101 105 120
0.503854 1.359334 -1.297377 71 76 88
0.115065 1.424327 -0.905234 129 137 148
-0.415178 0.887787 -1.334168 59 63 74
-0.692986 0.990369 -1.309159 95 104 113
-0.877651 1.140244 -1.340957 95 104 119
-0.420348 1.702658 -0.721630 101 102 106
0.153733 0.632396 -1.339918 96 104 115
-0.316952 1.769225 -0.755749 39 40 45
-0.147128 0.924735 -1.712207 49 48 53
0.096752 1.921617 -0.898953 162 173 190
-0.591001 1.040364 -1.357059 88 96 107
0.002530 1.852462 -0.879815 56 58 70
-0.066502 0.733647 -1.504429 51 55 60
-0.312537 1.346630 -0.672224 86 94 107
-0.100653 1.664790 -0.759031 29 28 33
-0.581629 1.038325 -1.361155 62 71 86
0.226483 1.947806 -1.168400 78 89 106
-0.775807 1.082142 -1.523551 94 104 116
-0.488771 1.732845 -0.757544 78 81 88
0.624493 1.270234 -1.331994 83 87 99
0.087139 0.666517 -1.447665 95 98 105
0.118708 0.647476 -1.359585 67 73 85
-0.331069 1.775620 -0.762119 47 50 57
0.731075 0.836069 -1.751571 150 162 184
-0.557424 1.918557 -0.902626 27 28 30
0.618745 1.269226 -1.338733 112 116 127
-0.799205 1.652137 -0.839657 50 55 67
-0.388674 0.876085 -1.440694 108 114 125
